# .PCD v0.7 - Point Cloud Data file format
VERSION 0.7
FIELDS x y z
SIZE 4 4 4
TYPE F F F
COUNT 1 1 1
WIDTH 1373
HEIGHT 1
VIEWPOINT 0 0 0 1 0 0 0
POINTS 1373
DATA ascii
-0.1494714 0.70347661 -0.21317302
0.017473554 0.71307915 -0.19501412
0.057954617 0.62766695 -0.32105136
0.00038479257 0.71333784 -0.21389136
0.17044225 0.75410873 -0.18425289
0.032433107 0.68248999 -0.21928483
0.0053898212 0.78517056 -0.24276704
0.08187931 0.64051968 -0.34268981
0.021389084 0.68193102 -0.21856515
0.056905229 0.72657919 -0.21957628
0.04435103 0.78652316 -0.24585406
-0.13185257 0.70218867 -0.14843358
0.092232108 0.76441228 -0.29218248
0.10407731 0.6960246 -0.33596316
-0.15190141 0.70716769 -0.20335098
0.1513194 0.7226091 -0.23527907
0.17584006 0.76000297 -0.21470588
-0.013965916 0.77930403 -0.25326812
0.1542359 0.75202364 -0.28072041
0.10975401 0.73226237 -0.24332437
0.15675774 0.72990727 -0.2208087
-0.02784192 0.65751868 -0.3054539
-0.025997007 0.80718642 -0.3329123
0.014589535 0.72712564 -0.16992049
0.0074300636 0.80546302 -0.27173293
0.028828181 0.72301668 -0.15962178
0.10499583 0.68694073 -0.33273911
-0.096090302 0.72692543 -0.23761933
0.019999154 0.66637826 -0.23580542
-0.088754259 0.73374093 -0.25962564
0.1770467 0.75751477 -0.24350503
0.047506034 0.63135362 -0.30199218
0.097861618 0.76165766 -0.33248419
0.079435527 0.64007103 -0.335527
-0.053608514 0.69558239 -0.29696295
0.011952612 0.63935632 -0.2791529
0.19435605 0.75225073 -0.20649901
0.076681152 0.63938516 -0.32679003
0.070140488 0.67311263 -0.2565724
0.10458674 0.68585455 -0.34181342
0.19748142 0.74801439 -0.18277892
0.16228543 0.72259164 -0.27942687
-0.023153154 0.79907626 -0.30370203
0.092984006 0.7618745 -0.29723293
-0.11844245 0.70727789 -0.19703901
0.01342974 0.80328178 -0.26357406
0.013467508 0.62068027 -0.33442476
0.10765216 0.71019232 -0.26179984
0.088815883 0.78022134 -0.34207425
0.056526527 0.6778608 -0.23784707
0.087304831 0.78130513 -0.33158231
0.036282372 0.72023296 -0.19127323
0.050771154 0.65204859 -0.26426402
-0.054192554 0.74969858 -0.33893025
0.14956206 0.75537366 -0.27471828
0.0074162064 0.68152332 -0.22528894
0.031816125 0.72780287 -0.1508882
-0.025337962 0.81010342 -0.34247759
0.017780509 0.81331307 -0.28840789
0.18062186 0.7520051 -0.11913271
-0.046600118 0.75404274 -0.28989452
0.18672644 0.76169658 -0.14363277
-0.027343059 0.80968565 -0.34489012
0.034894928 0.81529927 -0.30358326
-0.011980217 0.79512101 -0.27535871
0.035323713 0.61779046 -0.33352718
0.099396393 0.7030459 -0.28055096
0.028923001 0.72831112 -0.14880228
0.11277293 0.7534371 -0.26606527
0.063121498 0.62606394 -0.34138349
0.10333682 0.74385184 -0.32338607
-0.021624207 0.69434589 -0.23721182
-0.14298247 0.69862986 -0.2238881
-0.051265031 0.75255752 -0.30809686
-0.03150047 0.69941378 -0.24643558
-0.14618894 0.71115696 -0.1400409
0.032584455 0.8109833 -0.28719428
-0.010821082 0.81566828 -0.3239159
0.18188038 0.76143509 -0.12530044
-0.14680584 0.70140892 -0.14188452
0.1882825 0.74711454 -0.23867531
0.19582964 0.75326264 -0.16410396
0.017116614 0.80932969 -0.27820021
0.047185816 0.7161063 -0.21301737
0.015643604 0.77745479 -0.22997834
0.062620372 0.8019163 -0.30469888
-0.039413754 0.77263403 -0.28960484
0.0055968734 0.65485257 -0.2559703
0.19500402 0.74713022 -0.15267065
-0.054282542 0.7246663 -0.24551073
-0.025060914 0.69854569 -0.23825952
0.14611569 0.75618929 -0.26207438
0.037940055 0.74872041 -0.2142355
0.0057009649 0.62608594 -0.31897452
0.18739724 0.75664628 -0.22538234
0.17729264 0.75780791 -0.15520436
0.071797274 0.64190006 -0.30734202
-0.017037552 0.81186354 -0.32471824
-0.01794284 0.81710267 -0.3448301
0.090454489 0.76895881 -0.30035427
0.10776701 0.72873664 -0.24395573
0.14252852 0.75534159 -0.24977483
0.13407904 0.74741238 -0.23817013
0.071871415 0.73469883 -0.23300703
-0.047738656 0.68677682 -0.31486401
0.096460894 0.76110572 -0.31508097
0.19441876 0.75572664 -0.15164231
0.027466785 0.62634796 -0.30302769
-0.028865559 0.73523307 -0.23801248
-0.11798811 0.6940124 -0.24728583
-0.10040711 0.69589871 -0.27551514
-0.080047317 0.70235068 -0.30094981
-0.00066652114 0.66514611 -0.24607436
0.02072859 0.74827319 -0.20987339
0.1199337 0.7087962 -0.27346104
0.027867258 0.63119853 -0.29079548
0.02444542 0.74179763 -0.20089069
0.031557221 0.81417197 -0.29642627
0.017940057 0.66748202 -0.23487012
0.070406884 0.76812547 -0.24725671
-0.059838515 0.72550565 -0.31570277
0.11823345 0.71993363 -0.24773706
-0.13872878 0.71512717 -0.18321821
0.080864325 0.64351612 -0.33227935
0.10758727 0.71445841 -0.31510213
0.097728848 0.69205874 -0.29537079
0.0055102906 0.69298148 -0.21909913
-0.081758685 0.72521043 -0.24041809
0.04234013 0.61846596 -0.33936456
0.19620013 0.75136656 -0.19674805
-0.15119401 0.71102297 -0.16311522
0.052788969 0.7423625 -0.21901859
0.065084651 0.67094159 -0.25316727
-0.065628 0.73994929 -0.294278
-0.049654379 0.73644155 -0.25538224
-0.075527117 0.69933218 -0.25546446
-0.12627506 0.72238237 -0.2149238
-0.036592916 0.80049622 -0.34660351
0.19621868 0.74074501 -0.20155023
0.05214164 0.67536426 -0.23611376
0.18016607 0.75822353 -0.23484769
-0.026230307 0.7488206 -0.23924541
-0.0019691035 0.6778475 -0.23380764
-0.14381455 0.71222484 -0.20258777
0.0435968 0.62940699 -0.30229634
-0.13209736 0.71349341 -0.16691768
-0.069080397 0.7353434 -0.25839561
0.10131166 0.67633629 -0.34235761
-0.035391789 0.66195142 -0.32818919
0.1030798 0.73506075 -0.34418413
0.097507663 0.70998657 -0.259247
-0.00013830091 0.82359886 -0.33687118
0.0024450519 0.78463835 -0.24333915
0.035559438 0.71943837 -0.19043627
0.17712879 0.76291537 -0.10858468
-0.14267533 0.70415723 -0.23871516
0.044142496 0.69309896 -0.21968228
0.11112799 0.75377375 -0.28879559
-0.098309584 0.70211124 -0.29233581
-0.084984809 0.71477371 -0.30214423
0.14216088 0.72472566 -0.23631079
0.066692106 0.68109286 -0.24458979
0.19718121 0.75003892 -0.18812531
-0.0041274801 0.67526293 -0.23789683
-0.015336837 0.6914854 -0.23355134
-0.071434565 0.71570092 -0.2429134
-0.02328524 0.64891326 -0.31246945
-0.052591853 0.74898803 -0.32079092
-0.0079746274 0.65401441 -0.27079666
-0.10694951 0.70168579 -0.28890476
-0.099073 0.72550911 -0.23345119
0.11340913 0.71363693 -0.2557565
0.099973813 0.71005523 -0.25962985
0.10488175 0.73277158 -0.334407
-0.14183319 0.70957071 -0.14967391
0.087747924 0.77662402 -0.31662056
-0.13225052 0.71006304 -0.15401019
-0.072496131 0.73402911 -0.25603753
-0.091892965 0.73308581 -0.28390843
0.16939367 0.72130412 -0.24483898
0.070921704 0.78865641 -0.28584835
0.051124375 0.67522085 -0.23540139
-0.035812832 0.69924217 -0.25374228
0.037661862 0.66364396 -0.24164444
0.057122745 0.66703141 -0.25012201
0.0030880249 0.66318506 -0.24571465
0.069796987 0.71348232 -0.23062381
0.10259872 0.68779618 -0.32421142
0.10150555 0.69162726 -0.31536081
0.089553393 0.75598323 -0.26867679
0.18360624 0.76030225 -0.20451432
0.087910101 0.77298325 -0.30409431
0.045121722 0.64553481 -0.27082753
0.013098497 0.68390572 -0.22167851
-0.051601216 0.70655888 -0.33967793
0.16331156 0.7552076 -0.26790962
-0.037178472 0.76299489 -0.26906025
0.15766788 0.73998088 -0.21293107
0.083297953 0.77747923 -0.30080891
0.081923097 0.73674494 -0.24437264
0.049766373 0.77186066 -0.23208705
0.062458549 0.64597058 -0.28809619
-0.0093469294 0.75385392 -0.22580962
-0.013814718 0.66818762 -0.2550385
0.073303565 0.78988886 -0.29845831
0.015836809 0.70479006 -0.20929338
-0.1089123 0.70236999 -0.22042066
-0.12077043 0.69421744 -0.24989262
0.18472831 0.74009621 -0.25060263
-0.0041557201 0.63488501 -0.30912447
0.027563207 0.82529676 -0.33099774
-0.13110039 0.70185399 -0.1608071
-0.048238751 0.68831569 -0.31419131
0.051855136 0.8017596 -0.28510883
-0.055577748 0.73954362 -0.34358507
0.1371567 0.71214509 -0.26866215
0.13901557 0.7116363 -0.27785051
0.020159163 0.62199759 -0.3188296
0.072250374 0.72048628 -0.23255929
0.0098491479 0.81070226 -0.28457424
0.098942623 0.6903618 -0.30426359
0.03016701 0.62107384 -0.31780505
-0.043647915 0.68692976 -0.29387438
-0.048358802 0.77130198 -0.33865139
0.04545784 0.65309888 -0.25955513
-0.011752683 0.70513892 -0.22431022
0.076724999 0.69915432 -0.2443998
-0.034347266 0.75680846 -0.25847456
-0.024680678 0.70520091 -0.23487388
0.078816883 0.79365116 -0.34302789
0.0015955119 0.62635106 -0.32569385
0.076274604 0.72907925 -0.23754898
-0.072927989 0.72619766 -0.24343772
0.18611556 0.74745649 -0.24459009
0.069985233 0.66597915 -0.26498684
-0.043808173 0.76438546 -0.2884368
0.052386969 0.62043786 -0.34243762
0.056807511 0.63928199 -0.29344764
-0.047763009 0.6759094 -0.34261152
0.023617549 0.80460364 -0.2657195
0.14801028 0.7147789 -0.26404175
0.18729584 0.73505467 -0.23969215
-0.054242332 0.75802988 -0.34251088
0.0065511926 0.66434318 -0.24215503
0.17050295 0.74187499 -0.18912528
-0.045199551 0.77909702 -0.32867253
-0.024500031 0.68612856 -0.24717523
0.071367837 0.63330817 -0.3289271
0.062608078 0.710706 -0.22424206
0.10313821 0.75402164 -0.27407238
0.049093772 0.81497759 -0.32471186
-0.12208421 0.70504779 -0.27490076
-0.011838441 0.77608526 -0.24694341
0.14899336 0.75159609 -0.28443086
0.18609847 0.75170451 -0.24373633
0.012297666 0.80941159 -0.27987805
0.19242753 0.7601797 -0.1670288
0.18036827 0.72585362 -0.23991798
0.090918347 0.77294713 -0.32332855
0.062968031 0.6614368 -0.26271278
-0.10904573 0.69627875 -0.27355081
-0.085779302 0.69630271 -0.2606501
0.18134576 0.74646735 -0.14526661
0.0069138529 0.82207054 -0.3209568
-0.00010100382 0.7830537 -0.24279818
-0.12837368 0.72120315 -0.20867874
-0.086698115 0.73506147 -0.26943192
-0.048813272 0.68763793 -0.32174027
-0.13972901 0.71222913 -0.16046877
0.1015394 0.70332235 -0.28313559
0.074902393 0.79522312 -0.32679692
-0.054945514 0.73386174 -0.33573237
0.076250255 0.78673887 -0.29741064
-0.024257537 0.73758566 -0.23250133
0.08370281 0.77835524 -0.3048155
0.091770418 0.69774544 -0.27233538
0.1969763 0.75009203 -0.19265012
-0.13145949 0.70252061 -0.11482214
0.042272929 0.68311644 -0.22491688
0.10001333 0.75179899 -0.32128966
-0.10616145 0.72969282 -0.24922431
0.0036636926 0.74927884 -0.21532772
-0.1219058 0.71946865 -0.20120536
0.09578228 0.75338197 -0.26792589
-0.039879765 0.66977441 -0.32340783
0.029990721 0.71607828 -0.18468404
-0.1095363 0.72828865 -0.24159509
0.09260802 0.68950492 -0.2821708
0.0078632524 0.82659161 -0.33383557
0.17640777 0.75092405 -0.14972906
0.10439438 0.71987814 -0.337874
-0.11809834 0.72607851 -0.23593672
0.086494595 0.65691286 -0.30882725
0.068619527 0.79693109 -0.30791757
-0.025679378 0.79310876 -0.29580188
-0.027275117 0.80512357 -0.32725358
0.086793706 0.72382885 -0.24616274
-0.035659071 0.6639868 -0.31852698
0.0355816 0.63484204 -0.28467622
-0.052759022 0.74343812 -0.28896129
-0.11726516 0.69399971 -0.2430149
0.17914873 0.75136441 -0.12447026
0.12704809 0.74245977 -0.23971489
-0.028569764 0.79215503 -0.30072576
0.086120918 0.65111142 -0.32564875
0.025851499 0.63928962 -0.2731317
-0.014946858 0.64280862 -0.30827492
0.044716448 0.76202422 -0.22193609
0.18358572 0.73323977 -0.24814965
-0.09134876 0.73367667 -0.28171414
-0.11246825 0.72308356 -0.27845287
-0.042041492 0.7733708 -0.3038092
-0.1433413 0.70225859 -0.12399431
-0.096879065 0.71035552 -0.22904621
-0.046138328 0.75584584 -0.28867415
0.18460412 0.72927123 -0.23865908
-0.043512251 0.68185896 -0.30735722
0.0068723564 0.69100213 -0.21972677
0.074967749 0.76870573 -0.25409585
-0.10469048 0.72145033 -0.29059482
-0.032706991 0.71603507 -0.24183236
-0.083823957 0.73528743 -0.28521422
0.029619778 0.80819118 -0.27786478
-0.014608699 0.74015939 -0.22413281
0.03178522 0.72662544 -0.17472206
-0.085796811 0.72857255 -0.24391496
0.10300258 0.73638028 -0.34483573
0.077961206 0.68060756 -0.26105443
0.13864097 0.71547157 -0.2546722
0.022040192 0.70838434 -0.20211044
-0.052659124 0.74204439 -0.31708425
0.068419203 0.71805722 -0.22854283
-0.085669965 0.7244541 -0.23828977
0.12564172 0.71479219 -0.30151752
0.087144718 0.65971476 -0.30674642
0.1896933 0.74612236 -0.14544684
0.0099217892 0.65594137 -0.25204054
-0.10895406 0.72791195 -0.27445355
0.17451468 0.7514174 -0.26397121
0.08632911 0.68502218 -0.2718465
0.083088234 0.73487502 -0.24484628
-0.14476825 0.70556134 -0.23472127
-0.031542674 0.69913411 -0.24666657
0.17653002 0.75700575 -0.24687958
-0.007104001 0.65524286 -0.2675263
0.051559355 0.64652854 -0.27367595
0.10099983 0.68718076 -0.31789219
0.10334546 0.74597007 -0.318602
0.16037564 0.74233639 -0.20796683
-0.011003676 0.81858265 -0.33609501
0.16444187 0.74702978 -0.28556743
-0.035331029 0.6615324 -0.33099183
0.050084282 0.80590421 -0.29349449
0.073481962 0.63775766 -0.31968638
0.070784688 0.64692658 -0.29662484
0.17397702 0.72830743 -0.26727843
0.017318826 0.80153114 -0.2605713
0.049919784 0.78026891 -0.2413141
0.17820458 0.72547948 -0.23077933
-0.14742544 0.69909441 -0.1808549
0.027858803 0.73068547 -0.163248
0.033807978 0.80384141 -0.26967266
0.018005855 0.78391433 -0.23671636
0.075657755 0.78074539 -0.27768961
-0.15170182 0.7027123 -0.16988431
-0.14571045 0.70718932 -0.23266093
0.075128727 0.74006015 -0.23778015
-0.050070975 0.69240993 -0.33897445
0.10144937 0.74609423 -0.34015828
0.17970376 0.74261659 -0.26222965
0.10481542 0.70506114 -0.34036213
0.10198951 0.70686191 -0.26934212
-0.1065267 0.70274407 -0.28964695
0.17899263 0.73325795 -0.19372861
0.090334684 0.76956636 -0.30802494
0.033387214 0.77619022 -0.22924872
0.14439237 0.7535395 -0.23820113
-0.054048583 0.74280971 -0.33931908
-0.09159977 0.69539797 -0.2718032
-0.032533985 0.67636395 -0.27160081
-0.0038234328 0.71038306 -0.21785477
0.18680143 0.73000515 -0.22784035
0.049501579 0.75722194 -0.22184843
0.054919075 0.8130365 -0.32988858
-0.047927767 0.68845171 -0.31211829
0.024014918 0.73071498 -0.14529152
0.067526013 0.73104161 -0.22806524
0.060274243 0.65172046 -0.27470329
-0.013192859 0.6377551 -0.31911641
-0.029523393 0.80306816 -0.32853517
-0.076945573 0.72026682 -0.30890542
0.050575439 0.76602453 -0.22799338
-0.088013791 0.70026439 -0.29657498
-0.093030907 0.70276904 -0.2386516
0.13695368 0.7544964 -0.27648085
0.052956898 0.77689654 -0.23973568
0.0039511011 0.62707853 -0.31860089
-0.024191814 0.78563374 -0.27517131
-0.066235766 0.74015993 -0.28927824
-0.010084648 0.7867468 -0.25842941
-0.032704521 0.7022841 -0.24680384
-0.12392914 0.69521636 -0.25236356
0.027482923 0.61839491 -0.32321405
0.19336689 0.73687851 -0.2166594
0.19119908 0.73588508 -0.22690579
0.18622048 0.75952709 -0.1190808
0.065813392 0.63522297 -0.31256869
0.09124355 0.64860678 -0.34618253
0.0094070453 0.72852671 -0.19913106
0.17771117 0.7420544 -0.17154744
-0.093470469 0.72941661 -0.2441761
0.038010385 0.74200398 -0.20835084
0.16622175 0.71948332 -0.2555002
0.082792558 0.75609243 -0.2557095
0.1541813 0.72184205 -0.23610748
0.030620506 0.769297 -0.22155891
0.080147319 0.70857513 -0.24560787
0.0093811117 0.74080741 -0.20544796
0.14681929 0.75108033 -0.28672695
-0.06212325 0.74120653 -0.2788682
0.051259425 0.70497137 -0.21816704
0.015126727 0.77172589 -0.22181208
0.027631922 0.79780579 -0.25714478
0.013913092 0.78554904 -0.23975825
0.033991355 0.62994975 -0.2956349
-0.024257259 0.65520829 -0.29752952
0.066942774 0.80441618 -0.33348042
0.18476529 0.73105299 -0.20771788
-0.044184193 0.767537 -0.30198136
0.12104496 0.70782858 -0.28132725
0.039275251 0.6258409 -0.30885708
0.09347412 0.66934806 -0.30921906
0.0060897851 0.81144565 -0.28948459
-0.1167892 0.72055125 -0.28226772
-0.13489272 0.69654351 -0.18914232
0.047016289 0.80484509 -0.28465405
-0.1363025 0.69707245 -0.17709711
-0.075476535 0.69987565 -0.25425133
0.0045107389 0.6517933 -0.26162624
-0.043885175 0.68771118 -0.28930965
-0.087477721 0.69567102 -0.27494937
0.16265582 0.75527906 -0.21223027
-0.041348085 0.70663738 -0.25260079
-0.12539458 0.72355318 -0.22528368
0.011920407 0.80365413 -0.26479757
-0.032747958 0.66794163 -0.29024529
0.060312856 0.80389494 -0.30607793
0.19691271 0.74744064 -0.20343217
0.038952351 0.81594199 -0.31047413
-0.11159844 0.72672516 -0.23357219
0.063521467 0.80496049 -0.32227996
-0.071676143 0.73234183 -0.30471441
-0.048713792 0.6933642 -0.30040413
-0.0036561741 0.76994747 -0.23120812
-0.093782462 0.69627029 -0.2787315
-0.10475164 0.72907335 -0.24358916
0.17638727 0.75717586 -0.24637499
-0.039137457 0.77741843 -0.30102128
0.11783733 0.70960826 -0.26884785
-0.013676048 0.66185123 -0.26475781
-0.13081099 0.71905798 -0.19544633
-0.15209734 0.70978963 -0.16548328
0.025827896 0.63794893 -0.27662608
0.11613413 0.71510226 -0.2538144
0.0065822136 0.80325323 -0.26879388
0.084927559 0.77756155 -0.30724189
0.091553524 0.65872473 -0.33211917
-0.0084108179 0.81694221 -0.323594
0.19572785 0.75295162 -0.15526503
-0.0072258036 0.71379614 -0.21935228
-0.13108057 0.69999844 -0.25621524
0.035412639 0.73478037 -0.19749022
0.024385018 0.6181156 -0.32614663
-0.01332094 0.79994285 -0.28623858
-0.017389728 0.763403 -0.23980086
0.19229785 0.73632139 -0.19909568
-0.093047179 0.71443081 -0.23142539
-0.045055404 0.6893729 -0.29752621
0.1904383 0.74118698 -0.16496822
0.039969869 0.74125093 -0.2102108
0.1461895 0.75442314 -0.23936172
-0.02715672 0.78224069 -0.27455252
0.13708228 0.73503113 -0.23393506
0.058175415 0.65586102 -0.26575437
-0.081846438 0.69608569 -0.2699714
-0.076127805 0.69692665 -0.28842685
-0.049803268 0.7461502 -0.29680094
0.030724712 0.68859911 -0.21612301
0.029919025 0.75553316 -0.2158099
-0.047833566 0.74388951 -0.27800196
0.027932946 0.61697751 -0.34567237
0.022653174 0.69914812 -0.21313627
-0.025376845 0.78719884 -0.28051394
-0.047520183 0.76814747 -0.31289673
-0.047883235 0.72813606 -0.24643497
0.0030965353 0.80164534 -0.26922461
0.078008935 0.78152424 -0.28973931
-0.13525943 0.71769261 -0.19576454
0.01030378 0.74189311 -0.20663667
-0.032280672 0.66772139 -0.28924292
0.07869564 0.70957893 -0.24257562
-0.056117844 0.74217582 -0.27575675
0.011719421 0.72148627 -0.19327201
0.067298643 0.80409616 -0.3353923
-0.031975847 0.79375231 -0.31199569
-0.044435952 0.68427324 -0.30574539
-0.023691142 0.7108795 -0.23230541
0.067317374 0.79847848 -0.3088105
0.036338709 0.81630707 -0.3084898
0.074519508 0.67678612 -0.25886327
-0.02226446 0.66641766 -0.2693629
-0.061000887 0.73827732 -0.30297878
0.1520672 0.71715915 -0.25354919
0.0062643611 0.68846744 -0.22113739
0.061528821 0.62538117 -0.34053347
-0.014204531 0.66062212 -0.26738429
0.073627807 0.75515062 -0.24109399
0.10372718 0.73151934 -0.34399194
0.16900873 0.75607932 -0.25970644
-0.012133382 0.63922811 -0.31098875
0.012856679 0.66495055 -0.23892599
0.051826466 0.81569278 -0.33291742
0.052897632 0.77515221 -0.23773095
0.1726023 0.74442035 -0.18112618
-0.050282296 0.68424314 -0.34099627
-0.085113727 0.70220101 -0.2994785
0.025315519 0.82695168 -0.3457967
0.061392099 0.62700212 -0.32674411
0.1683557 0.73048657 -0.20913646
-0.044040382 0.68295759 -0.30696809
0.083703615 0.64883888 -0.31866091
-0.00070745195 0.7365464 -0.21273586
-0.072442718 0.70691615 -0.24665017
-0.034924053 0.7642203 -0.26566136
0.043650426 0.79662627 -0.26233831
-0.072796345 0.73100013 -0.30529028
-0.032874003 0.79757434 -0.32435578
-0.13640879 0.7107057 -0.11213997
0.039981652 0.78764749 -0.24570563
-0.1351265 0.7094695 -0.25703475
0.027527316 0.6183005 -0.32349575
0.056846969 0.80192804 -0.29256442
-0.016914144 0.75437325 -0.23290716
0.018559078 0.77647299 -0.22775526
-0.12491409 0.72287506 -0.25352871
0.14559974 0.74298161 -0.22720377
0.015046628 0.7173261 -0.18595044
0.19470325 0.74269754 -0.21820024
0.070862524 0.75584579 -0.23832579
-0.084067523 0.72972435 -0.24660729
-0.0088677416 0.63337934 -0.3323369
0.1147112 0.7118063 -0.26042926
0.062742107 0.73098135 -0.22401571
0.093933471 0.70765924 -0.26181036
-0.087912217 0.71848774 -0.23518249
-0.0080341725 0.62985879 -0.34577376
0.079447269 0.64863652 -0.30724302
-0.071094446 0.73665291 -0.29829931
0.02823722 0.73384523 -0.17599037
-0.065262623 0.73433316 -0.25505975
0.19114156 0.75972706 -0.18645893
-0.14531596 0.69802678 -0.20161219
-0.054453086 0.7428959 -0.28144559
0.10164422 0.68849903 -0.32027358
0.18689092 0.76094955 -0.16237228
-0.037603024 0.7017526 -0.25419882
-0.14812161 0.69939744 -0.18313086
0.1219721 0.74671501 -0.2447041
0.18566944 0.7604031 -0.19725752
0.18691893 0.73236996 -0.20523308
-0.12557004 0.70672196 -0.17588359
0.082900874 0.66979182 -0.28230503
-0.028454548 0.78635597 -0.28547266
0.015512767 0.69852877 -0.21442091
-0.025980661 0.68541944 -0.24991788
0.089665443 0.65476763 -0.3347396
-0.026521567 0.74114299 -0.23604323
-0.11936072 0.69398743 -0.2466196
0.1824085 0.72701496 -0.23587653
-0.068368338 0.69662273 -0.29030988
-0.0080280444 0.81700182 -0.32297245
0.18968409 0.75184232 -0.12657478
-0.021545904 0.77178603 -0.25340369
-0.03190029 0.79502124 -0.31507641
-0.13754764 0.69785196 -0.16489474
0.10477478 0.71108419 -0.25857112
-0.12913944 0.69539243 -0.20953287
-0.0096606696 0.81390882 -0.31313094
-0.017831452 0.65473872 -0.28368044
-0.057728071 0.69560456 -0.29204023
0.053740621 0.80755198 -0.30528277
-0.065677091 0.70714843 -0.31030232
0.14900556 0.74884778 -0.28958857
-0.055781193 0.73594433 -0.34098616
0.018399728 0.80960441 -0.27887833
0.094582759 0.73085058 -0.24487737
0.16524465 0.74798721 -0.19774556
0.011058751 0.74171019 -0.20634009
-0.017555745 0.64044136 -0.32454583
0.014804999 0.75649285 -0.21515754
-0.13345411 0.69772393 -0.17808533
-0.013625279 0.81439775 -0.32762998
-0.013099999 0.81156975 -0.31210178
0.013138523 0.66536123 -0.23838903
0.19312432 0.75813216 -0.14842024
0.068116322 0.64320803 -0.30114844
0.046259962 0.65793544 -0.25299436
-0.082050696 0.72759151 -0.2427246
-0.037648022 0.7269941 -0.24597359
0.10312282 0.74027032 -0.34645736
-0.0011252243 0.63901085 -0.29334968
0.18267712 0.76241601 -0.10796808
0.13721219 0.73275501 -0.23427995
0.099098168 0.67164153 -0.34043527
-0.032432869 0.72189426 -0.24121116
0.065603681 0.76186001 -0.23669523
-0.031634118 0.72679716 -0.24035931
-0.0019177053 0.77644181 -0.23605999
-0.050901759 0.75785184 -0.311955
0.0054265372 0.70838821 -0.21312268
0.016558493 0.78214645 -0.23502994
-0.12626761 0.69416928 -0.2326445
-0.12062837 0.71505123 -0.19516586
-0.037683491 0.66483825 -0.33517665
0.065072276 0.80331671 -0.318212
0.17644356 0.75798643 -0.14093657
-0.024659246 0.68753362 -0.24615975
0.073341489 0.78766418 -0.28934595
0.14898819 0.71813697 -0.24855201
0.06309624 0.80489033 -0.31990278
0.060104448 0.65759063 -0.26517642
-0.070206136 0.69622719 -0.28481793
-0.14181365 0.69756037 -0.16957332
0.098240815 0.6776762 -0.31417316
0.057626806 0.63873053 -0.29571995
0.17393374 0.75145108 -0.16855672
-0.019775985 0.67634547 -0.25227165
0.023857709 0.73233706 -0.16912884
-0.086631604 0.71315449 -0.23654726
-0.027529852 0.692747 -0.24511214
-0.051360041 0.73781252 -0.25824469
0.065699689 0.73824376 -0.22769783
-0.012825324 0.63557148 -0.33584937
0.079137996 0.72089529 -0.24133275
0.053488642 0.63143861 -0.30857465
0.1048888 0.68888545 -0.34303299
0.017496785 0.7587446 -0.21496746
-0.10127729 0.69623995 -0.27711448
0.16355522 0.72365379 -0.22901864
-0.13839178 0.6958555 -0.21056581
0.025196027 0.78741241 -0.24055614
0.10236222 0.69743037 -0.31434849
-0.0416799 0.73924845 -0.25764626
-0.12138802 0.70357424 -0.19391692
0.024589838 0.73132306 -0.16348326
0.010385457 0.68777287 -0.22061437
0.00094480917 0.63933402 -0.28890035
-0.13212049 0.70191252 -0.14296308
0.078673072 0.77408421 -0.27247953
-0.026780523 0.65025252 -0.32870999
0.042760096 0.82020128 -0.33321384
-0.064649582 0.74068034 -0.28923953
-0.082489274 0.69575346 -0.27747113
0.0545482 0.65977919 -0.2570129
-0.13239099 0.71299195 -0.26162243
0.088159338 0.67669213 -0.28442276
0.052427746 0.65245891 -0.26484874
0.069195434 0.70622879 -0.23178537
0.015748685 0.72310269 -0.16582301
-0.013936157 0.79926956 -0.28591833
0.085922852 0.78095984 -0.32423434
0.059842054 0.79626 -0.28202182
0.091182493 0.74689633 -0.25280321
0.066059038 0.67217278 -0.25282127
0.067159466 0.78275591 -0.26475766
0.087112159 0.7699635 -0.28794935
-0.13132924 0.69525844 -0.20997684
0.07166937 0.77901578 -0.26531678
-0.02490226 0.80835134 -0.33442712
0.0034789003 0.82489371 -0.33445999
-0.11632621 0.69400644 -0.24976453
-0.06755285 0.72991252 -0.30811745
0.013345676 0.68109876 -0.22346576
0.18633988 0.75875419 -0.21715753
0.18771365 0.74074697 -0.24211693
0.059367735 0.69684964 -0.22694463
-0.031921376 0.8012256 -0.33457303
0.010289666 0.74218416 -0.20705296
0.19576712 0.75174278 -0.15057568
0.011758993 0.82312453 -0.31908408
0.18420005 0.72992331 -0.21301213
0.067640789 0.70679152 -0.23013784
0.025728574 0.63177401 -0.28938675
-0.048477054 0.77012116 -0.32835904
0.094034463 0.77277154 -0.33199176
-0.12550135 0.71926582 -0.19641165
-0.031761903 0.7850498 -0.29164687
0.101069 0.67687851 -0.32848793
0.0017937641 0.74934149 -0.21596935
-0.02848703 0.79126203 -0.29835072
-0.051466491 0.75466681 -0.31156397
-0.0050251316 0.63027155 -0.33065516
0.13136013 0.75408608 -0.25621754
-0.045445692 0.71782094 -0.24684487
-0.053971305 0.70789635 -0.34584737
0.087377429 0.70188195 -0.26056403
-0.038459115 0.66639996 -0.32858545
-0.021506526 0.64326996 -0.34025759
0.050240044 0.81267148 -0.3139649
0.17515872 0.75518906 -0.16064094
-0.056728523 0.71502048 -0.3252486
-0.029553799 0.68124962 -0.25914085
0.034007244 0.73294872 -0.1908716
0.18927072 0.75828511 -0.21040696
0.008453344 0.73052144 -0.20118587
-0.1099246 0.72695279 -0.23425707
-0.0088487417 0.80569941 -0.29070839
-0.047836252 0.75565737 -0.29496971
0.051361509 0.72978318 -0.21613848
0.010263978 0.64388514 -0.27139187
-0.14368227 0.69882029 -0.15248677
0.098793991 0.75474375 -0.33725837
0.15920722 0.75560665 -0.22209866
-0.15197469 0.70919389 -0.19754706
-0.099198505 0.71657985 -0.22582227
0.16941604 0.75787157 -0.24824223
-0.045832369 0.76308316 -0.29817873
-0.041530203 0.71710116 -0.24724737
0.013159737 0.77267379 -0.22437407
0.11082961 0.74794018 -0.25141364
0.012135392 0.76715946 -0.22068968
0.03729054 0.6258902 -0.30679938
-0.14168945 0.70050603 -0.12780294
-0.14662845 0.70919758 -0.12790982
0.12941191 0.74977106 -0.24508621
-0.076367386 0.7329551 -0.25385138
-0.052890006 0.70352453 -0.3306464
-0.025849279 0.64980662 -0.31887022
0.071250051 0.80280316 -0.34578621
0.19167189 0.76059628 -0.1569023
0.078419521 0.71505171 -0.24090846
-0.085150473 0.69615245 -0.28131843
-0.1417229 0.71287125 -0.17779703
-0.10924596 0.72425777 -0.28150672
-0.12084108 0.69886214 -0.26880494
-0.0562854 0.70062083 -0.30981794
0.07256189 0.64062274 -0.31128085
-0.11863383 0.72538072 -0.26150367
-0.13780609 0.70878863 -0.25184157
0.053020701 0.67791742 -0.23440559
0.01971058 0.61923283 -0.33958232
-0.039529655 0.67015886 -0.3192344
-0.1015036 0.70221877 -0.23078275
-0.016981354 0.69455612 -0.23270744
-0.070797674 0.69929725 -0.25796166
-0.0016756239 0.79558665 -0.26279664
0.001470915 0.77654546 -0.23402679
-0.024275461 0.79646623 -0.30097094
0.15724856 0.72901022 -0.22150275
-0.066519022 0.73106229 -0.30773577
0.12036874 0.73795843 -0.24142423
-0.092566609 0.72959512 -0.2446761
-0.14324623 0.70802444 -0.14554994
0.081733927 0.7088446 -0.24822867
0.00053928402 0.80060595 -0.26991889
0.12716955 0.7537533 -0.25931102
0.082234085 0.70170653 -0.25230306
-0.092888094 0.72002101 -0.29719597
0.046617098 0.78670305 -0.24802917
0.011919702 0.78443587 -0.23913801
0.17970802 0.75878495 -0.23208825
0.015169715 0.82827365 -0.34624255
-0.054167803 0.75836593 -0.32854897
-0.1111508 0.72549915 -0.27625597
0.16026518 0.75033724 -0.20866416
0.18905483 0.73698318 -0.23589815
0.16979027 0.72785115 -0.21461256
-0.099876963 0.72738516 -0.28861237
-0.0049311668 0.64878702 -0.27812117
-0.057125207 0.73446226 -0.34568608
0.070725471 0.67438585 -0.25591546
0.070713736 0.77728438 -0.26075214
0.082133479 0.76021302 -0.25820127
-0.14009486 0.69746786 -0.16818267
-0.094002061 0.72948134 -0.24430342
0.085035317 0.78185219 -0.32220554
-0.016591154 0.67201698 -0.25342664
-0.016397562 0.69662595 -0.23096357
-0.024962293 0.64789402 -0.33616006
0.04835118 0.67061996 -0.23864578
-0.085667744 0.7091397 -0.30152622
-0.06162804 0.6958099 -0.28113177
-0.14465235 0.71155369 -0.19147044
0.062432405 0.76826197 -0.23853762
0.078927055 0.78683352 -0.31048411
0.057257626 0.72210032 -0.21938834
-0.057979196 0.70765769 -0.24972127
0.077705756 0.76028842 -0.25006801
0.1917994 0.759359 -0.14575016
-0.11065669 0.69414997 -0.25476369
-0.010527948 0.81540388 -0.32147893
0.17367209 0.75937253 -0.11212448
0.1970683 0.74707389 -0.20240743
-0.14800778 0.70944685 -0.16636193
-0.11467881 0.71178073 -0.20408928
-0.042736832 0.71717638 -0.24725628
0.084543578 0.65007406 -0.31764972
0.075138927 0.77740312 -0.2684103
-0.083886936 0.69683862 -0.25862831
-0.044725038 0.71065789 -0.24980296
0.18141742 0.76033396 -0.19637026
-0.053374175 0.74460334 -0.33704647
0.021683598 0.76126754 -0.21585464
0.015542291 0.62006664 -0.33536017
-0.047742676 0.73509026 -0.25184569
0.0052340473 0.62506676 -0.32246327
-0.021972949 0.68874657 -0.2424098
-0.10390006 0.69817168 -0.2818808
0.058227383 0.72316742 -0.220138
-0.02272322 0.80228257 -0.30835706
0.13274255 0.75467658 -0.26683769
0.069677077 0.79232168 -0.29593581
0.1120984 0.74648798 -0.30638739
0.10448472 0.71380395 -0.33861682
0.021590106 0.81377494 -0.28955665
-0.039635267 0.68668813 -0.27382302
0.1859062 0.73701602 -0.17986856
-0.062086325 0.72546524 -0.32535324
0.15478688 0.75321472 -0.27813035
0.041633584 0.82037055 -0.33019763
-0.10470627 0.73075372 -0.26021969
-0.14723429 0.70860547 -0.22760604
0.10408062 0.69188166 -0.33225909
0.094673835 0.75912166 -0.29387823
0.13903077 0.71220899 -0.28642264
0.017792862 0.72165507 -0.1626723
-0.073089808 0.72094125 -0.24187841
0.16372496 0.71923029 -0.26799205
-0.12905279 0.69777501 -0.19145516
-0.040919136 0.67987329 -0.29968086
-0.056785963 0.73103577 -0.3137427
-0.043307766 0.67323184 -0.32844234
0.10042986 0.74713808 -0.25185657
0.094904646 0.77237123 -0.33866879
0.18537197 0.75071484 -0.24705438
0.18358673 0.76091492 -0.15168631
0.10110167 0.67696667 -0.32841197
0.0087686516 0.6225428 -0.32735279
0.078722246 0.7382341 -0.24143411
-0.0030444497 0.71554035 -0.21627864
-0.12702423 0.71219248 -0.17637458
-0.081448503 0.69777161 -0.2926966
0.07553456 0.79220265 -0.31531742
0.048769966 0.81268221 -0.31176656
0.051178779 0.77581555 -0.23705585
0.10208939 0.72754395 -0.24460725
0.10148022 0.67969215 -0.32557237
-0.10795841 0.71245492 -0.21477666
0.11017563 0.75221384 -0.29782671
0.081225462 0.75808603 -0.25464955
-0.021437248 0.73407799 -0.22866812
-0.052669324 0.74881637 -0.31529126
-0.14519073 0.71208864 -0.22075716
0.026300663 0.82570618 -0.33187145
0.076418512 0.68251145 -0.25621232
-0.13731281 0.71117318 -0.14876391
0.047986813 0.63967764 -0.28396094
0.10942554 0.7488392 -0.25343111
-0.016700236 0.75014418 -0.2299525
0.094083257 0.70756394 -0.26211298
-0.019359967 0.77960008 -0.25970083
0.17764938 0.75480479 -0.11320425
-0.039710518 0.66911978 -0.32514337
0.19267592 0.75330114 -0.13326861
-0.12751345 0.70284426 -0.17474514
-0.052525409 0.73880577 -0.31926078
-0.036852904 0.70927125 -0.24865049
0.18091391 0.75987309 -0.18013977
0.089421637 0.77962649 -0.34314463
-0.041817758 0.68337911 -0.29015428
0.063141577 0.68824637 -0.23485707
-0.034268893 0.70149195 -0.2498346
0.036045253 0.75628132 -0.21753894
0.13408805 0.71725535 -0.24980681
-0.12889878 0.703776 -0.26491639
-0.069215357 0.69620043 -0.28519216
0.17821106 0.75263423 -0.26077643
0.025805119 0.79054177 -0.24455133
0.030379541 0.68874466 -0.21599285
0.097224846 0.70579159 -0.26876372
0.075325362 0.63782001 -0.32497621
0.066719957 0.80109817 -0.31436801
-0.066210225 0.74026126 -0.28576732
-0.081504934 0.72948033 -0.30094287
0.10331498 0.74685258 -0.3165994
-0.041235331 0.67610419 -0.31069165
-0.13734221 0.71718663 -0.20642045
-0.045264062 0.73057491 -0.24700297
-0.034238022 0.66639024 -0.3068704
-0.022128344 0.79072177 -0.28186455
0.053992193 0.67517376 -0.23807214
-0.025066938 0.76383817 -0.24897227
0.031318549 0.73057878 -0.1717211
-0.10206463 0.72847962 -0.24022445
0.031823501 0.72029483 -0.14542244
0.17992073 0.75012964 -0.1296757
0.17333646 0.75870043 -0.23990655
0.087186463 0.65276062 -0.32508314
0.072877191 0.71617466 -0.23391882
0.061107334 0.74440169 -0.22489069
0.062299866 0.79756761 -0.29038996
0.015072444 0.71630746 -0.19002262
-0.11416651 0.72733045 -0.26319265
0.074955665 0.79612947 -0.33481622
0.0014370932 0.63581032 -0.29829383
-0.0025657334 0.69509709 -0.2220396
0.041425556 0.75558972 -0.21802379
-0.064505346 0.69591576 -0.27911502
0.15676998 0.74027884 -0.2141594
-0.014254073 0.65185934 -0.2827034
0.0042529586 0.82414806 -0.33105078
-0.13303281 0.70611012 -0.25970507
0.0053278543 0.65187746 -0.26104677
0.024623971 0.77380973 -0.22311871
-0.01167469 0.66041017 -0.26454636
0.19194242 0.73489237 -0.20826612
-0.14281382 0.71086156 -0.12475133
0.039857898 0.82155335 -0.33157298
0.058557086 0.79232121 -0.27024519
-0.10474721 0.69828463 -0.28165793
-0.096198246 0.70930207 -0.29580545
-0.11809643 0.69423282 -0.23501994
0.046537351 0.75802785 -0.22053246
0.1015809 0.67616701 -0.34452489
0.061908994 0.80601943 -0.32130319
-0.075923391 0.73237163 -0.3021456
0.1773213 0.75197411 -0.26066211
0.028746622 0.66765732 -0.23514184
0.015345854 0.81176227 -0.28486925
-0.083455093 0.73595113 -0.27528793
0.10122835 0.74708527 -0.3240051
0.02792242 0.65653288 -0.24791899
-0.15274227 0.70663917 -0.19134045
0.014443245 0.79260242 -0.24877329
0.11055454 0.74839711 -0.30480674
-0.048563737 0.75280023 -0.29842582
-0.13048258 0.69490808 -0.21463549
0.046644822 0.62048954 -0.32894966
-0.082764797 0.69729435 -0.2571429
0.077099122 0.73989677 -0.23992327
0.045949489 0.67112905 -0.23697972
0.088165633 0.77621084 -0.31762138
0.062239278 0.63460797 -0.3094258
-0.048352316 0.77105629 -0.332724
0.040474709 0.63349342 -0.29059961
0.19241363 0.7601431 -0.15444387
0.10326456 0.74636316 -0.25039968
0.032431766 0.62506282 -0.3086462
0.059347689 0.77886194 -0.2481389
0.068559982 0.63938844 -0.30772468
0.071993545 0.79285431 -0.30781031
-0.14031169 0.70936131 -0.11173768
0.11042915 0.75359023 -0.26785073
0.11463019 0.75091559 -0.2986494
-0.10985067 0.71909153 -0.21523285
0.029795116 0.81162393 -0.28670478
0.19512422 0.75464422 -0.16701899
0.067607045 0.72470075 -0.22752947
-0.1453363 0.71112323 -0.20328054
-0.087673359 0.70590812 -0.23981079
-0.026671566 0.80902827 -0.34258947
0.029115515 0.78069574 -0.23287861
0.069581084 0.68485719 -0.24495351
0.060577683 0.69848096 -0.2270426
0.026935495 0.62502384 -0.30809495
0.084306844 0.64798677 -0.3319464
0.056336295 0.67311662 -0.2421257
-0.097172536 0.72241044 -0.23016617
0.056700889 0.64135903 -0.28904247
0.089053243 0.67543787 -0.28785276
0.14259157 0.71284854 -0.26953176
0.025396444 0.79868138 -0.25792885
0.17128433 0.73244017 -0.202251
-0.13183141 0.70868659 -0.10938176
0.00020332617 0.68037665 -0.22969389
0.049735948 0.62292522 -0.32299903
0.10264902 0.74841982 -0.31454352
0.18631133 0.76168209 -0.14172038
0.091883793 0.71466225 -0.25188321
0.12502043 0.71045661 -0.27003568
0.18951865 0.75435287 -0.22494769
0.13301013 0.71078205 -0.28673673
0.16293116 0.74975294 -0.20293471
-0.097003683 0.70899773 -0.22956057
-0.019611977 0.65713215 -0.28199121
0.12346111 0.70989323 -0.27151182
0.045226373 0.65542877 -0.25589886
0.0070556952 0.63339508 -0.29671922
0.17010249 0.74966377 -0.2803005
0.069455534 0.71165466 -0.23057991
0.010558809 0.72598898 -0.19532235
-0.05901916 0.72046596 -0.31823578
0.14636727 0.74950385 -0.22889014
0.095313542 0.7587648 -0.29924411
-0.099250063 0.72891629 -0.24200071
0.0088890716 0.82289225 -0.3213031
0.066021822 0.68891048 -0.23744859
-0.14326656 0.70774412 -0.14238594
0.066224538 0.79575264 -0.29427728
0.07370548 0.80069584 -0.34608471
0.032015435 0.7314114 -0.17818114
-0.047920033 0.6901108 -0.30923772
0.18110959 0.7610966 -0.13791342
-0.041004583 0.78379369 -0.31974757
0.089185096 0.764669 -0.28371519
-0.0051590116 0.7602303 -0.2258269
0.089168541 0.76827425 -0.29032284
0.033130053 0.73325247 -0.18866564
-0.039762389 0.77349466 -0.2928662
0.048257552 0.62875086 -0.30945793
-0.10423205 0.72767323 -0.2371828
0.066090241 0.63553286 -0.31222391
0.018853934 0.81863827 -0.30486676
0.030745698 0.8261112 -0.34589982
-0.1334583 0.71690202 -0.18372992
-0.12978582 0.71557355 -0.26583084
-0.15257457 0.70416182 -0.17499848
-0.09256386 0.69554138 -0.27317044
-0.049388934 0.68545723 -0.33221588
0.0094022658 0.78120416 -0.23658767
0.1935491 0.74362749 -0.16116875
0.037954722 0.63217801 -0.29232624
0.0532628 0.63439816 -0.30042055
-0.15183569 0.70470786 -0.15935239
-0.039809052 0.74843216 -0.26550972
-0.079218134 0.73597974 -0.26623136
-0.00044404369 0.63645387 -0.30015457
-0.14331426 0.6973297 -0.19158198
0.14408813 0.73837626 -0.22837615
-0.015770787 0.81127578 -0.31676677
-0.12717927 0.69491577 -0.21670803
-0.093104824 0.7198779 -0.29709765
0.019453779 0.71846688 -0.16883199
0.1223808 0.71131569 -0.26536158
0.11029693 0.74912423 -0.30389649
0.087502584 0.65552479 -0.31414732
-0.12052475 0.72116023 -0.20759834
0.19081143 0.73521256 -0.19935797
0.0085922815 0.62768966 -0.31109631
0.19610144 0.74063295 -0.19934915
-0.14330307 0.71181703 -0.17691617
-0.031208953 0.78243762 -0.28460187
-0.025820209 0.64787972 -0.34130368
-0.070414282 0.71101665 -0.31111163
-0.0019022138 0.73986506 -0.21532631
-0.025212632 0.7075212 -0.23475364
0.073147371 0.74424517 -0.23607503
-0.012920661 0.76839572 -0.23938985
0.094736613 0.66130453 -0.34228972
0.099158727 0.75488114 -0.31441036
-0.062655993 0.72580278 -0.24482353
0.070414074 0.65237176 -0.2853632
-0.10750531 0.72876269 -0.24375743
0.087025933 0.77749544 -0.31563875
0.10490395 0.71087646 -0.34080911
0.015648616 0.76343805 -0.2175668
0.023214154 0.75041026 -0.21106984
0.075713813 0.64789307 -0.30324778
-0.10059919 0.69570804 -0.24824753
0.043145176 0.76029843 -0.22050308
0.19714718 0.74682683 -0.16918017
-0.01264691 0.65301937 -0.27768067
0.017626006 0.64766204 -0.26083347
0.052497283 0.64490789 -0.27747515
-0.1230415 0.7186836 -0.19747733
0.0012087814 0.78965515 -0.25034642
0.14998421 0.72318107 -0.23480339
0.11877857 0.75206935 -0.29523754
-0.025915107 0.65624052 -0.2998234
0.18036862 0.75552207 -0.24632405
0.0725419 0.69339949 -0.24199633
0.047423314 0.80442679 -0.28418595
0.15769577 0.75592023 -0.2272467
0.16529152 0.75310546 -0.19990376
-0.031131748 0.78373206 -0.28671348
0.18259083 0.76036507 -0.15524986
-0.011818754 0.774432 -0.24481012
0.071751669 0.74686748 -0.23518641
0.041779585 0.64190453 -0.27473578
-0.034503296 0.67761511 -0.27381122
-0.052712474 0.75190824 -0.32180491
0.057252098 0.67246157 -0.24368988
-0.062083501 0.7414301 -0.28267071
0.10749236 0.74279273 -0.24571216
0.020215025 0.62710428 -0.30255806
0.024981413 0.68334365 -0.21685524
0.052515462 0.80231923 -0.28805226
-0.034795646 0.79930282 -0.3409602
0.083147883 0.69524407 -0.25697383
-0.0030862188 0.66795838 -0.24500379
-0.13393795 0.71227247 -0.25866523
0.14601102 0.74848837 -0.22858946
-0.015005132 0.63863832 -0.32151821
0.10612641 0.7407757 -0.3178415
0.1042453 0.71672821 -0.33538505
0.022303011 0.80720133 -0.26953623
0.073906459 0.63591254 -0.3254295
-0.023541916 0.69080794 -0.24220181
-0.012386888 0.66444951 -0.25902295
-0.037759703 0.79489779 -0.33770633
-0.14072767 0.6976096 -0.22612788
-0.12604992 0.71847916 -0.2619513
0.10658035 0.70877469 -0.30918112
-0.035379723 0.75826561 -0.26208523
0.094277985 0.7097016 -0.25871557
-0.0044934941 0.63283509 -0.31567422
0.15507194 0.7325018 -0.21980032
0.17508063 0.7596007 -0.2040133
0.12164947 0.70815557 -0.2788057
-0.12922965 0.70461208 -0.26519325
-0.0082027446 0.78719336 -0.25653154
0.099858619 0.75384307 -0.310763
0.046667427 0.81347984 -0.31160429
-0.071801476 0.6963349 -0.27265829
-0.11514421 0.69409543 -0.24718073
0.082137138 0.78881848 -0.33080554
0.1563403 0.71633828 -0.27552539
0.18978931 0.7599327 -0.1927979
-0.024392596 0.77886343 -0.26570472
-0.031202774 0.78825063 -0.29654697
0.05497174 0.62240303 -0.33829287
0.087175637 0.74328792 -0.24945608
-0.10558144 0.71526337 -0.21806571
0.017732501 0.71580017 -0.18466614
-0.095970877 0.6963771 -0.24977486
0.066209413 0.70497757 -0.22925237
-0.0078684315 0.73942554 -0.21961123
0.052443847 0.66287225 -0.25055027
0.0089436285 0.646424 -0.26821917
-0.01928821 0.73756117 -0.22722828
-0.074652031 0.73701876 -0.26818126
0.0016793108 0.70226181 -0.21664998
-0.11537293 0.69406986 -0.24773927
0.17748626 0.74777776 -0.15611388
0.12262958 0.71473283 -0.30295014
0.013717419 0.77632874 -0.22913325
0.035522744 0.82379681 -0.34368876
0.046708141 0.7107839 -0.21400084
0.081813008 0.7692768 -0.27097195
0.18655452 0.74636519 -0.24380727
0.10224928 0.69029373 -0.32247621
-0.15245773 0.70737302 -0.16145028
-0.050867692 0.763349 -0.3230637
0.17891763 0.72694486 -0.25115597
0.13655706 0.75447237 -0.27969989
0.1888286 0.7473588 -0.13886008
0.10549067 0.69388181 -0.34424433
-0.028564937 0.76209694 -0.25247791
0.037627041 0.68669051 -0.22021782
-0.13212389 0.69661117 -0.1933016
0.08208736 0.78359354 -0.31264803
0.021619461 0.63045859 -0.29354614
0.060985815 0.71165413 -0.22283171
-0.13916083 0.70874006 -0.1359431
-0.14215697 0.71137381 -0.23305273
0.19660738 0.75034261 -0.156675
-0.057336003 0.74261403 -0.34637791
-0.048456375 0.7647559 -0.31173593
-0.097927764 0.70600051 -0.23080137
0.016248884 0.70241827 -0.21213876
0.044264454 0.7028777 -0.21576941
0.05311878 0.803213 -0.29129747
0.071673766 0.72160977 -0.23175298
-0.042857431 0.67534781 -0.32186332
0.16153368 0.74615103 -0.20518522
0.13926426 0.71188807 -0.28196266
-0.00020471144 0.68368798 -0.22721304
-0.014888488 0.63499314 -0.34546146
0.063650042 0.70445782 -0.2270564
0.083462268 0.78348696 -0.31851438
-0.035477325 0.70217961 -0.25108781
-0.043449696 0.78480804 -0.33936021
0.07925839 0.79160172 -0.33757484
0.020743381 0.68093395 -0.21977092
-0.08996626 0.69565582 -0.2742914
-0.024552865 0.76164228 -0.24626076
-0.11442514 0.72715127 -0.23870556
0.10574328 0.73840427 -0.24403669
0.0068825129 0.78374761 -0.24059442
-0.11245497 0.72620046 -0.23102635
0.17007981 0.7586596 -0.24273406
0.060385134 0.72759658 -0.22202478
-0.053857125 0.76176775 -0.33566752
0.020410962 0.82708758 -0.33251819
-0.13420385 0.7185443 -0.2389598
-0.029810464 0.73250943 -0.23859353
0.018730508 0.61937749 -0.34029773
0.00048016352 0.7142719 -0.21342023
0.18357064 0.73659307 -0.18102635
-0.031908337 0.78604281 -0.29388148
-0.061952304 0.73603189 -0.25770828
0.059152197 0.62523293 -0.33237571
-0.030774355 0.66135883 -0.30599615
0.10443387 0.70694906 -0.33392537
-0.03796389 0.78368288 -0.30869994
-0.13198343 0.70513791 -0.26092723
-0.012522976 0.66636682 -0.25622484
0.032227341 0.71877784 -0.18131235
-0.14012009 0.70400709 -0.24391089
0.071168616 0.65230435 -0.28646058
0.18829176 0.73863053 -0.17447664
0.062240642 0.68262106 -0.23891211
0.11131287 0.75161797 -0.25995564
0.0008894084 0.62606132 -0.33261091
-0.12350763 0.70726717 -0.2754184
0.065573491 0.79817289 -0.29921946
-0.060008358 0.72499883 -0.24498546
0.1794121 0.74263775 -0.26484179
-0.011320535 0.79281682 -0.27030727
0.10266545 0.67881477 -0.32968318
0.05408283 0.81139547 -0.31876907
0.043729316 0.61962056 -0.330145
-0.044739496 0.78003913 -0.32767653
-0.082542807 0.70070273 -0.24880028
-0.13271214 0.70124412 -0.12039524
-0.091872692 0.70607829 -0.23628949
0.055524878 0.8135336 -0.33328959
0.011865743 0.67304373 -0.2313787
0.12253282 0.70823342 -0.28034487
0.0057235924 0.67172265 -0.23447852
-0.12913947 0.71370745 -0.1744069
0.039699081 0.75398141 -0.21693118
0.050052773 0.65326971 -0.26204988
-0.011591547 0.74551851 -0.22383407
0.17554966 0.75519884 -0.13274918
-0.0021625257 0.6899994 -0.22413528
-0.11648586 0.71312416 -0.20122665
0.16108862 0.722004 -0.28117272
-0.043906931 0.77286083 -0.30953851
-0.041943036 0.77360362 -0.30382702
-0.060211182 0.7322405 -0.24996597
0.19502173 0.73910505 -0.20973517
0.10363556 0.68074703 -0.32994106
-0.018779991 0.80802065 -0.31340462
-0.030708548 0.80507284 -0.34345204
-0.117472 0.72434115 -0.2676627
-0.089483738 0.73015445 -0.29325554
0.18434183 0.73135787 -0.24343544
0.029812193 0.68061441 -0.21970129
-0.075348653 0.70237952 -0.30227622
0.046873387 0.65912527 -0.25166005
0.038670197 0.72968805 -0.19821158
0.032697458 0.73637521 -0.19332223
-0.0090819141 0.66529119 -0.25448099
-0.072211564 0.71814519 -0.2422639
-0.043703288 0.77851319 -0.31912294
0.1849457 0.75006151 -0.12624784
0.019519251 0.79145861 -0.24660727
0.026578965 0.74462223 -0.20459498
-0.14850953 0.69965822 -0.17478675
0.022113953 0.82086116 -0.31469604
0.028589711 0.65973544 -0.2441783
-0.1285447 0.71502614 -0.26977506
-0.12431963 0.71092582 -0.27756375
-0.038770113 0.72242177 -0.24605811
-0.065869905 0.74004805 -0.27616668
0.030609215 0.73652411 -0.18863334
-0.04017479 0.77491736 -0.29855013
0.085162215 0.76625466 -0.27373734
0.10197424 0.70764875 -0.26693824
-0.13392892 0.69862461 -0.16721667
-0.038354345 0.67610043 -0.29223019
0.10980627 0.73936594 -0.24372379
0.09694422 0.76136601 -0.32472917
0.10155507 0.74654824 -0.32227865
0.088587292 0.66471452 -0.30366236
0.11241444 0.75305891 -0.26445404
0.06607201 0.7959848 -0.29446974
-0.14973357 0.7004962 -0.1910115
0.067388199 0.6373921 -0.31015801
0.026690183 0.72076672 -0.15480389
0.19685723 0.74770576 -0.16311352
0.060178019 0.6817382 -0.23807164
-0.031260483 0.7379021 -0.24220018
0.034041304 0.64189672 -0.26580462
0.030803761 0.61788452 -0.33720416
0.075711429 0.6987294 -0.24313851
0.017194999 0.7322607 -0.18008073
0.17497282 0.75615555 -0.12819098
0.17729688 0.72426003 -0.24189273
0.081413642 0.64553398 -0.32864711
-0.13336326 0.720263 -0.22752787
0.17534007 0.7594822 -0.2015474
0.1335333 0.71804696 -0.2483135
0.040781807 0.71674705 -0.20327768
-0.04263448 0.69558305 -0.26941323
0.15613927 0.72096294 -0.23879059
0.19277214 0.751652 -0.13473457
0.17117062 0.75962788 -0.22788443
0.15707275 0.72665948 -0.22496328
-0.079762667 0.69723761 -0.25992516
-0.128867 0.69893837 -0.1853234
0.19246936 0.75731516 -0.19930914
-0.14684768 0.69885975 -0.17978996
-0.052836876 0.74655926 -0.32615557
-0.1022443 0.72882873 -0.24163142
-0.00067712693 0.62738127 -0.32800546
0.019316692 0.77595621 -0.22681247
0.041831147 0.79170692 -0.25284386
0.16175704 0.72142911 -0.23786485
-0.042867426 0.74176282 -0.26329514
0.09747988 0.76725894 -0.33600548
0.12823014 0.75406921 -0.28114358
0.17218095 0.72442102 -0.26245856
0.01448812 0.75796956 -0.21600063
0.15454555 0.73397976 -0.21926695
0.062242649 0.80755186 -0.32675692
-0.026685843 0.66486681 -0.28078854
0.12932195 0.75274038 -0.29042014
-0.10931987 0.71359462 -0.21275073
0.15286355 0.75690126 -0.24162625
0.098873481 0.76120079 -0.34446082
-0.093957394 0.7194379 -0.29671073
-0.034583323 0.67234725 -0.28567499
0.080028571 0.74992406 -0.24738939
0.03463345 0.63062382 -0.29435107
0.083506405 0.7160722 -0.24718839
-0.15282768 0.70649737 -0.18502086
-0.1237671 0.72128057 -0.26164213
0.036773585 0.73455483 -0.19929656
-0.01763498 0.68121415 -0.24416827
-0.10692919 0.73014069 -0.25906846
0.063484102 0.79740793 -0.292184
0.019764654 0.64335304 -0.26563647
-0.11731651 0.69901341 -0.21307631
-0.030334536 0.68750274 -0.2540226
-0.15270439 0.70737547 -0.16651413
0.18247488 0.75734073 -0.10937919
0.10150865 0.69881034 -0.30159551
0.097018525 0.75970048 -0.31367022
-0.046710629 0.75590062 -0.29042631
0.1756461 0.75977933 -0.20477483
0.15354307 0.75396621 -0.22647943
-0.037818734 0.69727606 -0.25820488
-0.0071083535 0.79613209 -0.26976937
-0.14285335 0.71336454 -0.20732911
-0.13347897 0.70657831 -0.25921497
0.13139391 0.74476188 -0.23834455
0.057353653 0.7173996 -0.2195406
-0.051581934 0.71606016 -0.24640197
0.031238969 0.62705976 -0.30186379
0.036753498 0.81570053 -0.30676949
0.051473938 0.63561499 -0.29589674
-0.090508282 0.69732207 -0.28615335
0.190918 0.7587378 -0.19990869
-0.081090368 0.69636774 -0.28463238
0.015488837 0.75475484 -0.21396653
0.19188057 0.74449986 -0.15346125
-0.11586045 0.70572752 -0.20461138
-0.05027806 0.69786584 -0.34042874
0.0047741169 0.62880826 -0.31243223
0.17402114 0.75918388 -0.2030078
0.0027105543 0.64258063 -0.28039062
0.19092353 0.76035947 -0.1785944
0.0036755058 0.62548822 -0.32443005
0.0096961008 0.63211989 -0.29790428
-0.0069032745 0.63090712 -0.33650205
0.061180156 0.70831358 -0.2237777
0.089775018 0.76075196 -0.27878523
0.17356628 0.73408449 -0.19645588
-0.051136389 0.72650951 -0.24602105
-0.11833911 0.70300519 -0.20258716
0.17931296 0.75895965 -0.16774289
